# .PCD v.7 - Point Cloud Data file format
VERSION .7
FIELDS x y z
SIZE 4 4 4
TYPE F F F
COUNT 1 1 1
WIDTH 1417
HEIGHT 1
VIEWPOINT 0 0 0 1 0 0 0
POINTS 1417
DATA ascii
-0.00335634 0.06694257 0.03838872
-0.00306361 -0.07017416 0.02640544
-0.00303567 -0.04618982 0.04458334
-0.00271377 -0.07277078 0.02277419
-0.00328436 -0.07295078 0.03273654
-0.00331510 0.05269844 0.04188523
-0.00218049 0.00956591 0.02397702
-0.00256567 -0.07558345 0.02883218
-0.00332758 0.07846364 0.04502115
-0.00331307 0.07357395 0.04037243
-0.00254159 0.00661099 0.02503249
-0.00274396 -0.05003531 0.02221939
-0.00305017 -0.01397144 0.01654848
-0.00327686 0.02208280 0.01989330
-0.00326527 0.09049046 0.05021518
-0.00289449 -0.04197869 0.02032062
-0.00321626 0.07943034 0.04297541
-0.00322658 0.08449921 0.04887747
-0.00318630 0.03174428 0.02373508
-0.00165511 -0.05582172 0.04443736
-0.00321642 0.02724180 0.01990570
-0.00313817 0.09662687 0.05182820
-0.00281810 0.00336300 0.02617480
-0.00291300 0.03731112 0.02525834
-0.00318686 0.02450520 0.01993600
-0.00293313 0.05667389 0.03644000
-0.00271277 -0.04602837 0.02162549
-0.00239218 -0.07071591 0.02628160
-0.00312186 0.03056036 0.02023363
-0.00305193 -0.07301573 0.03218628
-0.00261012 -0.01949016 0.01530557
-0.00304802 0.08500510 0.04663296
-0.00311625 0.09028246 0.05133974
-0.00238033 -0.07696380 0.02448852
-0.00241038 -0.07553896 0.03179378
-0.00269932 0.05319944 0.03579046
-0.00273829 0.04255224 0.04794394
-0.00177776 -0.07303477 0.03966615
-0.00298691 0.11209920 0.05360695
-0.00205169 -0.03163948 0.05175008
-0.00255844 0.03698845 0.05329901
-0.00258435 -0.06951900 0.02577428
-0.00265436 0.01948284 0.02114745
-0.00255843 -0.01609290 0.01604340
-0.00201718 -0.00701339 0.02022742
-0.00298120 0.05965325 0.04147393
-0.00299617 0.09620779 0.05287630
-0.00296010 0.09087566 0.04925571
-0.00110404 0.03452630 0.02337531
-0.00267407 -0.06794656 0.02506649
-0.00262495 -0.07458396 0.03044065
-0.00308610 -0.07319488 0.03105863
-0.00254242 0.04359474 0.03544714
-0.00284397 0.11247201 0.05468006
-0.00287740 0.06616164 0.04203211
-0.00203148 -0.07398632 0.02331147
-0.00246808 -0.06775856 0.02472453
-0.00247913 0.04450620 0.03595686
-0.00285056 0.09672244 0.05084679
-0.00291004 0.04666595 0.03653363
-0.00322277 -0.07030788 0.04242807
-0.00245763 0.04953507 0.04399656
-0.00246383 -0.07199712 0.02504998
-0.00250539 -0.03402069 0.01619583
-0.00136587 -0.07310017 0.02111256
-0.00263516 0.11852224 0.05437897
-0.00223201 -0.07539182 0.02251050
-0.00277274 0.07185111 0.04341910
-0.00272439 0.11169944 0.05261833
-0.00056390 -0.02553107 0.01474144
-0.00250653 0.02548641 0.02064990
-0.00272089 0.06110057 0.03653685
-0.00213920 0.01223818 0.02313720
-0.00270493 0.07787709 0.04600356
-0.00233213 -0.00948946 0.01871795
-0.00127324 -0.05577309 0.02165995
-0.00264156 0.08345524 0.04966667
-0.00126680 -0.05361894 0.02213083
-0.00253784 0.11847119 0.05524043
-0.00266336 0.06709897 0.03743913
-0.00244000 0.02894893 0.02058451
-0.00244832 0.05090247 0.03568787
-0.00261523 0.07384102 0.03951011
0.00000364 -0.06038637 0.04549549
-0.00252441 0.07996929 0.04222063
-0.00254742 0.08994207 0.05238603
-0.00240382 0.11852724 0.05360660
-0.00208796 -0.07412599 0.02230521
-0.00216971 -0.03102577 0.01519661
-0.00165787 -0.07282233 0.02340871
-0.00243642 0.09592662 0.05391246
-0.00212104 0.00274399 0.06499578
-0.00217059 -0.01430857 0.01662446
-0.00214780 0.00704592 0.06491944
-0.00198142 -0.07574557 0.03055296
-0.00237998 0.08575509 0.04613371
-0.00231635 0.11238621 0.05565498
-0.00092932 -0.07208336 0.02071043
-0.00229421 0.05283264 0.04290169
-0.00229656 0.09221918 0.04888101
-0.00119836 -0.01880558 0.05992888
-0.00221616 -0.07682780 0.02645216
-0.00253810 -0.05764083 0.02184704
-0.00104936 0.03248456 0.02228472
-0.00071255 -0.07434265 0.02336927
0.00000134 -0.00150988 0.02430414
-0.00001489 -0.00054675 0.02441226
-0.00135652 -0.06429615 0.02172411
0.00001512 -0.00264645 0.02382645
-0.00000123 0.00013160 0.02464570
-0.00081908 0.02990607 0.02170888
-0.00221529 0.09736846 0.05016468
-0.00183912 -0.07071375 0.02448403
-0.00006546 -0.00315602 0.02311003
-0.00213314 0.11793639 0.05605688
-0.00176139 0.01731545 0.02240277
-0.00000188 0.00109583 0.02482121
-0.00008238 0.00515846 0.02617920
-0.00115101 -0.04803900 0.04474722
-0.00156676 -0.07715254 0.02542637
-0.00071685 0.00140387 0.02528686
-0.00212251 0.11137646 0.05183838
-0.00178586 -0.06858403 0.02555924
-0.00251223 0.00219121 0.02605052
-0.00106171 -0.03299495 0.05107138
-0.00204744 0.05980325 0.04244958
-0.00132963 -0.02141199 0.05852858
-0.00144292 0.03629596 0.02479246
-0.00172559 -0.07263048 0.02554903
-0.00000213 -0.03421690 0.05047969
-0.00075253 -0.05241399 0.04434710
-0.00109420 -0.02365858 0.05724535
-0.00211810 0.04634249 0.03607473
-0.00174995 -0.06805964 0.02734824
-0.00191938 0.11826206 0.05294630
-0.00200099 0.05665150 0.03565940
-0.00195862 0.06657050 0.04308117
-0.00192068 0.11983061 0.05504983
-0.00125670 0.04151135 0.03266517
-0.00187887 0.07176072 0.04438317
-0.00143982 0.04820203 0.04508809
-0.00190765 -0.06961060 0.02737684
-0.00158235 -0.04238611 0.04606127
-0.00178358 0.06107434 0.03576787
-0.00256653 0.04074469 0.04988047
-0.00182880 0.07769553 0.04695665
-0.00179194 0.03805293 0.02685127
0.00000409 -0.06430209 0.04560466
-0.00143240 -0.06859047 0.02623047
-0.00050523 -0.07611720 0.03196906
-0.00124972 0.03413542 0.05574187
-0.00006208 -0.06592974 0.04520802
-0.00181183 0.08279766 0.05031285
-0.00125409 -0.04452514 0.04530433
-0.00063058 0.03186950 0.05737521
-0.00182399 0.05351951 0.03533368
-0.00054411 0.02939811 0.05888676
-0.00125670 0.12012469 0.05363468
-0.00213610 0.02517672 0.02103615
-0.00082859 -0.07459575 0.02224440
-0.00172459 -0.06471352 0.02707716
-0.00124095 0.04372747 0.04745349
-0.00180979 0.06729804 0.03682397
-0.00173197 0.08975845 0.05327924
-0.00112585 -0.07022881 0.02471457
-0.00170864 0.07504604 0.03923384
-0.00046131 0.02675276 0.06028772
-0.00166588 -0.06644563 0.02798083
-0.00110369 -0.04940820 0.02180382
-0.00165181 0.09581904 0.05474345
-0.00113925 0.04583085 0.04624730
-0.00111323 -0.03975937 0.01900298
-0.00124743 0.02374491 0.06154678
0.00009929 -0.05652586 0.04469308
-0.00164125 0.08084936 0.04207329
0.00000317 -0.07597351 0.03472778
-0.00102394 -0.07256248 0.02322529
-0.00145832 -0.06907647 0.02546413
-0.00095456 -0.07477148 0.02303624
0.00002610 -0.06817624 0.04423730
-0.00156965 0.11248888 0.05644217
-0.00155516 -0.06669121 0.02743746
-0.00155945 0.08505322 0.04499733
-0.00000060 0.01996040 0.06295236
-0.00091419 -0.04555805 0.02107409
-0.00001938 -0.02217948 0.01494466
-0.00075918 -0.04203819 0.01991521
-0.00153811 0.08778880 0.04650494
-0.00115345 -0.01276207 0.06214289
-0.00106312 -0.00831539 0.06334265
-0.00111271 0.11775644 0.05700740
-0.00149052 -0.07090916 0.02725888
-0.00099850 -0.07787302 0.02536422
-0.00015224 -0.02854611 0.01486388
0.00000048 0.01567259 0.06398688
-0.00099132 -0.01597092 0.06111403
-0.00148677 0.09299152 0.04858058
-0.00101185 0.01142022 0.06463099
-0.00115192 0.12043958 0.05460750
-0.00016289 -0.01950196 0.01524681
-0.00143980 0.09777733 0.04969924
-0.00068904 0.12042271 0.05598236
-0.00080929 0.02446058 0.02185758
-0.00138087 0.10759882 0.05084385
-0.00150199 0.11924473 0.05644135
-0.00135210 0.11671633 0.05219373
-0.00076162 0.02705759 0.02157059
-0.00051834 0.02049748 0.02283876
-0.00089991 -0.05034655 0.04437478
-0.00080215 -0.07696593 0.02339400
-0.00045209 -0.07683645 0.02920845
-0.00089888 -0.06726038 0.02653308
-0.00083037 -0.07385635 0.02437865
-0.00056008 -0.07739870 0.02463438
0.00071804 -0.03837312 0.04813309
-0.00086904 -0.05773236 0.02148959
-0.00116723 -0.07286652 0.02364471
-0.00075992 0.11951080 0.05285170
-0.00118642 0.05161981 0.04384935
0.00033417 -0.07395685 0.03878144
-0.00128710 -0.07800708 0.02579834
-0.00115959 0.05441644 0.04334229
-0.00071192 -0.06525433 0.02787631
-0.00115538 0.00906095 0.02454749
-0.00047101 -0.06531772 0.02573264
-0.00104381 -0.06635970 0.02835429
-0.00079832 -0.07685933 0.02589705
-0.00056102 -0.07104502 0.02399623
0.00020640 0.00373654 0.02642664
-0.00060181 0.04542096 0.03564743
-0.00102891 0.06054906 0.04306490
-0.00055561 0.04959351 0.03535444
0.00000368 -0.07027592 0.04273687
-0.00043029 0.04378170 0.03518254
-0.00005697 -0.00777982 0.01958007
-0.00091390 0.01221854 0.02382477
-0.00071246 -0.07351981 0.02097970
-0.00099340 0.06742326 0.04377582
-0.00076666 -0.07105179 0.02520559
-0.00095800 0.07290180 0.04536728
-0.00086529 0.06170510 0.03538558
-0.00050100 -0.06974654 0.02797691
-0.00099400 0.05369203 0.03513868
-0.00037239 -0.07522510 0.02246303
-0.00092152 0.07754087 0.04753083
-0.00091248 -0.06800018 0.02786994
-0.00091307 0.08244131 0.05073901
-0.00000320 -0.07621703 0.03348661
-0.00114906 -0.06974028 0.02591529
-0.00087169 0.08891931 0.05356709
-0.00084442 0.06932569 0.03690611
0.00000137 -0.03566359 0.01681100
-0.00030465 0.04264038 0.04845597
-0.00076383 0.03660429 0.05379860
-0.00084089 0.09556180 0.05524182
-0.00012909 0.03735023 0.02664791
-0.00080251 0.07631449 0.03937739
-0.00062614 -0.06431596 0.02633138
-0.00005689 0.04236454 0.03388720
-0.00080631 0.10072871 0.05572155
-0.00064490 -0.07407049 0.02303657
-0.00050064 0.08098293 0.04168680
-0.00078620 0.11219801 0.05688079
-0.00001318 -0.03182869 0.01548818
-0.00039414 0.01603216 0.02347990
-0.00076329 0.08644194 0.04551954
-0.00027755 0.03959306 0.02983836
-0.00048486 -0.07817180 0.02627230
-0.00071999 0.09239069 0.04809263
0.00010815 0.03553401 0.02479374
0.00045681 -0.00151612 0.06483524
0.00018407 -0.01255659 0.01724191
0.00037139 0.00250706 0.06520497
-0.00071089 0.09752261 0.04940030
0.00031254 0.00676043 0.06515482
-0.00044689 -0.06427982 0.02160711
-0.00034249 -0.06766902 0.02634280
-0.00066921 0.11105595 0.05104750
-0.00026778 -0.07763262 0.02477073
-0.00073564 0.11981348 0.05669933
0.00000202 -0.07368442 0.02304130
-0.00003619 -0.01659434 0.01584228
-0.00163745 -0.06802538 0.02157800
0.00023073 -0.07191553 0.04117822
0.00069835 -0.06783045 0.02141238
0.00056058 -0.07479180 0.02221359
0.00000201 -0.07142068 0.02420132
0.00019474 0.03063158 0.02232859
-0.00007046 0.01764130 0.02359025
0.00000222 -0.07389059 0.02270425
-0.00003406 0.03359802 0.02338196
0.00032628 -0.07841644 0.02569874
0.00006361 -0.07540099 0.02264833
0.00006954 -0.07041039 0.02452985
-0.00005864 -0.07677187 0.02338494
0.00030898 0.01362393 0.02382987
0.00021174 -0.00493242 0.02177808
0.00292276 -0.03254196 0.01565690
0.00053800 -0.03992611 0.01900930
0.00082909 -0.04552811 0.02102815
0.00272498 0.00250969 0.02617167
0.00000108 0.00986051 0.02443741
0.00061885 0.01131283 0.06468577
0.00072891 0.02371096 0.06160712
0.00031704 0.04445659 0.04717343
0.00035510 0.04730240 0.04569817
0.00000013 0.05139666 0.04412207
0.00000000 0.05371236 0.03506804
0.00000000 0.05465863 0.04352657
0.00000000 0.06190309 0.03527510
-0.00000000 0.06088484 0.04326030
0.00000000 0.06907783 0.03672918
0.00000000 0.06815739 0.04411368
-0.00000000 0.07343050 0.04578079
0.00000000 0.07621675 0.03920743
0.00000000 0.07733115 0.04762181
-0.00000000 0.08188631 0.05060608
0.00037817 0.08516200 0.04458274
-0.00000000 0.08626986 0.05274694
0.00040708 0.08756248 0.04597763
0.00000000 0.09259808 0.04808088
-0.00000000 0.09173784 0.05458559
-0.00000000 0.09763966 0.04933794
0.00000000 0.09659901 0.05555836
-0.00000000 0.10063135 0.05586807
-0.00000000 0.10682893 0.05039788
-0.00000000 0.11183976 0.05699739
-0.00024009 0.11810364 0.05219286
0.00000000 0.11817726 0.05726659
0.00056840 0.11985126 0.05674946
0.00075022 0.12010738 0.05331569
-0.00000000 0.12063905 0.05443683
0.00111875 -0.04941269 0.02179403
0.00105604 -0.01284186 0.06213328
0.00000363 -0.05347903 0.02222201
0.00070669 -0.05589410 0.02163478
0.00093660 -0.05770904 0.02149115
0.00116400 -0.02226191 0.05809573
-0.00014677 -0.07075954 0.02070928
0.00062327 -0.03081458 0.05261908
0.00048160 -0.06428927 0.02626684
0.00048821 -0.06529434 0.02574266
0.00023442 -0.07370374 0.02095231
0.00069784 -0.06452605 0.02708029
-0.00024705 -0.03124723 0.05233915
0.00112655 -0.06969010 0.02593014
0.00000214 -0.06629494 0.02846082
0.00061989 -0.07417771 0.02300529
0.00045869 -0.07456957 0.02316922
0.00058114 -0.06800196 0.02797953
0.00230954 -0.04282322 0.04579169
0.00082010 -0.04451416 0.04530468
-0.00045452 -0.07089301 0.02763921
0.00023947 -0.04811216 0.04482706
0.00046787 -0.05169755 0.04438264
0.00015063 -0.05302053 0.04454671
0.00027752 0.02502085 0.02185017
0.00039574 0.01821551 0.02370039
0.00057419 0.02740672 0.02170808
0.00080659 -0.07696516 0.02339294
0.00066242 -0.07259316 0.02314503
0.00105215 -0.07549661 0.02245125
0.00032476 -0.07745690 0.02484464
0.00022987 -0.07534540 0.02320679
0.00069264 -0.07648537 0.02999831
0.00061527 -0.07077923 0.02536654
0.00063408 -0.06767169 0.02646039
0.00055375 0.01492470 0.02407064
0.00006925 -0.07362991 0.02502137
0.00063560 -0.07204948 0.02060169
0.00080354 -0.07685929 0.02589684
0.00100099 -0.07343564 0.02105682
0.00116641 -0.07362167 0.02318121
0.00113056 0.11841409 0.05250064
0.00082582 0.03195893 0.02299977
0.00266928 -0.01784414 0.01562585
0.00016285 -0.07495409 0.03717656
0.00066636 0.11665553 0.05195008
0.00077018 -0.07607048 0.03201733
0.00125635 -0.05361753 0.02212649
0.00104938 0.12027612 0.05586939
0.00127564 -0.07801997 0.02575040
0.00066781 0.10771161 0.05060384
0.00071089 0.09752261 0.04940030
0.00098313 -0.01884869 0.05991093
0.00171629 -0.07272789 0.02543937
0.00157198 -0.07715231 0.02542608
0.00172882 -0.01173154 0.01766868
0.00111271 0.11775644 0.05700740
0.00071999 0.09239069 0.04809263
0.00106381 -0.01596318 0.06110653
0.00114266 -0.00814794 0.06337257
0.00115192 0.12043958 0.05460750
0.00000373 -0.06300183 0.04573949
0.00284942 -0.02837018 0.01469637
0.00141880 -0.04209319 0.01999193
0.00193062 -0.07409813 0.02330180
0.00078620 0.11219801 0.05688079
0.00080778 0.08094065 0.04175430
0.00193972 -0.00765407 0.01973356
0.00271782 -0.03081236 0.01513708
0.00146187 0.03624096 0.02620980
0.00124881 -0.07090506 0.02742842
0.00080631 0.10072871 0.05572155
0.00080251 0.07631449 0.03937739
0.00084089 0.09556180 0.05524182
0.00098329 0.01728301 0.02362887
0.00288734 0.04256896 0.03432417
0.00113292 0.02172177 0.02225613
0.00084442 0.06932569 0.03690611
0.00149183 0.03946057 0.05127000
0.00135813 0.03764200 0.02769579
0.00100364 -0.07787290 0.02536397
0.00134118 0.03511932 0.05500466
0.00087169 0.08891931 0.05356709
0.00086529 0.06170510 0.03538558
0.00090087 -0.06720952 0.02652595
0.00131811 0.04310735 0.04786395
0.00170759 0.02332960 0.02152671
0.00091307 0.08244131 0.05073901
0.00099400 0.05369203 0.03513868
0.00092152 0.07754087 0.04753083
0.00146446 -0.06966971 0.02765753
0.00152122 -0.06471214 0.02679502
0.00117319 -0.07014474 0.02471118
0.00095800 0.07290180 0.04536728
0.00177364 0.04327075 0.03489644
0.00099340 0.06742326 0.04377582
0.00099054 0.04968660 0.03541466
0.00104809 -0.06635960 0.02835409
0.00102891 0.06054906 0.04306490
0.00177667 0.00990576 0.02424673
0.00164925 0.04426081 0.03546461
0.00306360 0.00197009 0.02590141
0.00161811 -0.07291260 0.02335138
0.00132514 0.03368203 0.02412483
0.00112079 0.04573419 0.03572417
0.00115959 0.05441644 0.04334229
0.00168240 0.01263987 0.02441163
0.00150199 0.11924473 0.05644135
0.00112417 0.00907184 0.02454476
0.00172860 -0.06503476 0.02744270
0.00118618 0.05162428 0.04384819
0.00140093 -0.06854338 0.02623685
0.00376996 -0.06607844 0.04480643
0.00213044 -0.01442339 0.01657030
0.00114176 -0.07135813 0.02443235
0.00141319 0.02830839 0.02167833
0.00146232 -0.06907639 0.02546382
0.00162270 -0.07277499 0.02126893
0.00233647 -0.07551055 0.03158942
0.00192133 -0.02948429 0.05326092
0.00110700 -0.06435672 0.02167320
0.00178990 -0.06858379 0.02555883
0.00158044 0.04018108 0.03091622
0.00137566 0.11116667 0.05131315
0.00180189 -0.04842144 0.04449705
0.00143980 0.09777733 0.04969924
0.00191154 -0.07587544 0.03032660
0.00171908 0.11968723 0.05367233
0.00209233 -0.07412553 0.02230479
0.00148677 0.09299152 0.04858058
0.00182700 0.02553753 0.02126798
0.00297764 -0.02051861 0.01520838
0.00232360 -0.06894213 0.02171566
0.00153811 0.08778880 0.04650494
0.00165965 0.03022519 0.02219346
0.00206606 -0.05579018 0.04436773
0.00156965 0.11248888 0.05644217
0.00155945 0.08505322 0.04499733
0.00155926 -0.06669101 0.02743716
0.00249711 -0.04514283 0.02125695
0.00292437 -0.03930577 0.01909597
0.00348137 -0.07081857 0.04184453
0.00372307 -0.07042176 0.04234985
0.00164125 0.08084936 0.04207329
0.00165181 0.09581904 0.05474345
0.00175428 -0.06805949 0.02734786
0.00182229 0.04632480 0.04571620
0.00222153 -0.07682742 0.02645191
0.00167006 -0.06644537 0.02798043
0.00163072 0.01764869 0.02267914
0.00219382 -0.04541978 0.04495587
0.00326457 -0.06924873 0.04332922
0.00362756 -0.02472039 0.01485197
0.00279355 -0.07258408 0.02314462
0.00170864 0.07504604 0.03923384
0.00173197 0.08975845 0.05327924
0.00331569 -0.05972137 0.04519753
0.00309856 -0.07404142 0.03801311
0.00336787 -0.03462106 0.01661420
0.00182399 0.05351951 0.03533368
0.00238505 -0.07696359 0.02448790
0.00246622 0.02668215 0.06011944
0.00180979 0.06729804 0.03682397
0.00190946 -0.07072229 0.02449351
0.00283685 -0.07579618 0.03473662
0.00251109 0.02923997 0.05876418
0.00178358 0.06107434 0.03576787
0.00181183 0.08279766 0.05031285
0.00254179 0.03168066 0.05727561
0.00257011 0.04073872 0.04988485
0.00191938 0.11826206 0.05294630
0.00271774 -0.07277048 0.02277357
0.00182880 0.07769553 0.04695665
0.00184881 0.01531710 0.02294200
0.00310556 0.00932223 0.02497156
0.00221936 0.01330110 0.02322672
0.00192068 0.11983061 0.05504983
0.00317729 -0.03910392 0.04758713
0.00187887 0.07176072 0.04438317
0.00247180 -0.06775826 0.02472403
0.00213250 -0.07074861 0.02658742
0.00244832 0.05090247 0.03568787
0.00213297 -0.05623288 0.02179735
0.00204230 0.03180101 0.02292351
0.00195862 0.06657050 0.04308117
0.00213314 0.11793639 0.05605688
0.00204744 0.05980325 0.04244958
0.00273707 -0.07121024 0.02477500
0.00324806 -0.07588057 0.03355991
0.00212182 0.04642402 0.03606832
0.00303030 -0.04987383 0.04373425
0.00329460 -0.06919318 0.02230900
0.00225987 0.02824957 0.02147893
0.00212251 0.11137646 0.05183838
0.00204057 0.02190340 0.02517664
0.00292048 -0.07600343 0.02333805
0.00237298 0.03400725 0.02445416
0.00240382 0.11852724 0.05360660
0.00212039 0.02734744 0.02517003
0.00248524 -0.07565394 0.02890747
0.00313381 -0.05320210 0.04367407
0.00210865 0.02368443 0.02539518
0.00240815 -0.07217432 0.02490017
0.00221529 0.09736846 0.05016468
0.00467948 0.00118527 0.02533566
0.00223641 -0.07539146 0.02251006
0.00304421 -0.05948521 0.02201698
0.00321634 0.00454176 0.02580910
0.00229421 0.05283267 0.04290168
0.00253784 0.11847119 0.05524043
0.00380600 -0.00354473 0.02320616
0.00229585 -0.06411117 0.02203901
0.00236274 0.00721232 0.02488904
0.00229656 0.09221918 0.04888101
0.00466492 -0.06276249 0.04524297
0.00454453 -0.00284527 0.02438584
0.00231635 0.11238621 0.05565498
0.00264708 -0.07464313 0.03030075
0.00421143 -0.00161291 0.02495815
0.00283447 -0.01881074 0.05954359
0.00263516 0.11852224 0.05437897
0.00229694 0.01865250 0.02396190
0.00214296 0.05531863 0.03561345
0.00237998 0.08575509 0.04613371
0.00272897 -0.04871521 0.02209477
0.00258851 -0.06951853 0.02577373
0.00245732 0.04953557 0.04399637
0.00243642 0.09592662 0.05391246
0.00251826 0.02931064 0.02511732
0.00290129 0.04475624 0.04593885
0.00373757 -0.06762550 0.04425902
0.00313282 0.00715454 0.06471935
0.00316973 0.01159271 0.06428251
0.00305841 -0.07022760 0.02642270
0.00257298 0.03893529 0.02932532
0.00311692 0.00288350 0.06479371
0.00252441 0.07996929 0.04222063
0.00314568 -0.01605573 0.06062099
0.00278321 -0.01576716 0.01614405
0.00482363 -0.06508986 0.04496336
0.00314630 -0.00116630 0.06446586
0.00324692 0.01594138 0.06353611
0.00254742 0.08994207 0.05238603
0.00321878 -0.00505996 0.06369968
0.00320946 -0.00867484 0.06289151
0.00321411 -0.01246978 0.06185127
0.00288389 0.01113171 0.02367240
0.00329135 -0.07111123 0.02422138
0.00337613 0.02019289 0.06248627
0.00261523 0.07384102 0.03951011
0.00264156 0.08345524 0.04966667
0.00266336 0.06709897 0.03743913
0.00272439 0.11169944 0.05261833
0.00267788 -0.06794614 0.02506597
0.00303765 -0.07420621 0.03108097
0.00342506 0.04325644 0.04683445
0.00285065 0.03695131 0.02777483
0.00265807 0.01642507 0.02319027
0.00269921 0.02999630 0.02201000
0.00270493 0.07787709 0.04600356
0.00272089 0.06110057 0.03653685
0.00355626 0.02381386 0.06119216
0.00334255 -0.07074631 0.02261709
0.00277274 0.07185111 0.04341910
0.00284397 0.11247201 0.05468006
0.00277258 0.02149259 0.02435076
0.00342433 -0.07301054 0.02263057
0.00291687 0.04653457 0.03655455
0.00371903 -0.05197012 0.04323978
0.00294755 0.02369394 0.02498988
0.00285056 0.09672244 0.05084679
0.00293313 0.05667389 0.03644000
0.00376015 -0.00925699 0.01879349
0.00287740 0.06616164 0.04203211
0.00314437 0.03115000 0.02255990
0.00351890 -0.02399077 0.05634426
0.00319558 0.05185635 0.03618963
0.00474503 -0.00745514 0.01985256
0.00280183 -0.01404388 0.01655083
0.00443422 0.04094854 0.03174856
0.00298691 0.11209920 0.05360695
0.00302234 -0.07400429 0.03071083
0.00333407 0.04491571 0.03661940
0.00370898 -0.02054162 0.05832428
0.00309199 -0.07319445 0.03105799
0.00362476 -0.07612873 0.02523470
0.00355555 -0.05353567 0.02269716
0.00296010 0.09087566 0.04925571
0.00299617 0.09620779 0.05287630
0.00298120 0.05965325 0.04147393
0.00345852 0.02475368 0.02477120
0.00347673 0.04387404 0.03601865
0.00370431 -0.07071173 0.02546298
0.00273595 0.04254989 0.04793867
0.00379419 -0.07134383 0.02520465
0.00305785 -0.07301534 0.03218551
0.00304802 0.08500510 0.04663296
0.00386173 -0.05560695 0.04394949
0.00311625 0.09028246 0.05133974
0.00391688 0.03678415 0.05313832
0.00380225 0.03404158 0.05534986
0.00322344 0.03146964 0.02542388
0.00367087 -0.03261429 0.05055091
0.00331510 0.05269844 0.04188523
0.00313817 0.09662687 0.05182820
0.00341195 -0.07447667 0.03206335
0.00459868 -0.00586991 0.02109602
0.00322658 0.08449921 0.04887747
0.00318147 -0.02181573 0.01509031
0.00430893 -0.04628054 0.04405717
0.00329001 -0.07295047 0.03273555
0.00321626 0.07943034 0.04297541
0.00424594 -0.07443821 0.03698425
0.00382191 -0.04115089 0.02026812
0.00405779 0.00362194 0.02610479
0.00372462 -0.01611464 0.01681578
0.00443015 -0.06626504 0.02297674
0.00326527 0.09049046 0.05021518
0.00410027 -0.07459848 0.02867150
0.00319218 0.01414677 0.02282889
0.00403279 -0.07562197 0.02434342
0.00415309 -0.07418373 0.03000719
0.00332758 0.07846364 0.04502115
0.00327250 0.00605626 0.02527038
0.00331307 0.07357395 0.04037243
0.00336581 0.08468800 0.04766673
0.00467851 0.04004881 0.03053478
0.00388574 -0.07422617 0.02303414
0.00335634 0.06694257 0.03838872
0.00351558 -0.01199235 0.01819176
0.00356277 -0.01080329 0.01841423
0.00339106 0.07184998 0.04220867
0.00435958 -0.07155700 0.02319661
0.00365632 -0.07120507 0.02434066
0.00346047 0.06013595 0.03748421
0.00350355 0.04683235 0.03707995
0.00408890 0.00009893 0.02519294
0.00417194 -0.07557333 0.03461045
0.00348717 0.07926083 0.04412552
0.00350861 -0.01487816 0.01711045
0.00373354 0.05167456 0.03683910
0.00354820 0.04943610 0.04300806
0.00349144 0.06670757 0.04093930
0.00370734 -0.07290543 0.03324147
0.00357453 0.03457587 0.02651589
0.00361787 0.05907706 0.04021487
0.00358508 0.07338335 0.04150177
0.00350789 -0.07040570 0.02490163
0.00353701 0.01906489 0.02274414
0.00365877 0.06695900 0.03964135
0.00365963 0.05649010 0.03761501
0.00414300 0.00793466 0.02475088
0.00438867 -0.04430521 0.04474810
0.00438040 -0.07068433 0.02384510
0.00434912 -0.05669822 0.02262416
0.00383310 0.05798923 0.03876477
0.00399427 0.02102642 0.02243811
0.00415263 0.01748098 0.02168399
0.00455497 -0.02799575 0.05339157
0.00541513 0.03786768 0.02895696
0.00410957 -0.01137177 0.02165293
0.00374125 -0.07277437 0.03055620
0.00487151 -0.05978334 0.02280334
0.00408823 0.02541382 0.02406378
0.00396665 0.02678247 0.02471456
0.00404505 -0.01418346 0.01845197
0.00434055 -0.04575103 0.02221523
0.00423827 -0.04941492 0.02282310
0.00389334 0.01219714 0.02273941
0.00404468 0.05237590 0.04062654
0.00434800 0.04512505 0.04434554
0.00411805 0.05190184 0.03775837
0.00414975 -0.02980215 0.01508393
0.00466756 0.00543559 0.02601192
0.00399740 0.04281789 0.03487218
0.00568932 -0.06827274 0.02400554
0.00423627 0.02350591 0.02237998
0.00419679 0.04619003 0.03806852
0.00473846 0.02742509 0.02451776
0.00544501 -0.05900856 0.04469912
0.00419693 -0.00886565 0.01923414
0.00407209 0.03256625 0.02579014
0.00476890 0.02664563 0.05958918
0.00445516 -0.07458033 0.03276308
0.00431007 0.00728652 0.02568849
0.00258330 -0.03434244 0.04995885
0.00457886 -0.00767387 0.02192602
0.00456368 -0.01814739 0.05907891
0.00440144 0.05089543 0.03926687
0.00424520 -0.01243705 0.02037340
0.00447917 0.01586893 0.02127929
0.00487332 0.00268162 0.02642576
0.00460508 -0.07276243 0.03364961
0.00505934 0.03887360 0.05077546
0.00470280 0.04371818 0.04512522
0.00490872 0.02917325 0.05818874
0.00544878 -0.07341777 0.02614770
0.00417386 0.00467469 0.02593857
0.00548654 0.03500795 0.02714486
0.00425683 -0.07467031 0.02370070
0.00450819 -0.02722543 0.01499157
0.00601507 -0.06119146 0.02353219
0.00452123 -0.07450772 0.02769971
0.00429356 0.05018770 0.04126290
0.00490137 -0.07025964 0.04321592
0.00500190 0.03157995 0.05666784
0.00446415 0.04429772 0.03751988
0.00443021 0.04791458 0.04272702
0.00534905 -0.05531486 0.04323987
0.00532718 -0.04937268 0.04263571
0.00485422 0.01924905 0.02031348
0.00465244 -0.01830260 0.01663029
0.00535471 -0.04092958 0.04633281
0.00457294 0.02530984 0.02219720
0.00476347 0.02459999 0.02023362
0.00466760 0.04595058 0.03913343
0.00523745 -0.06765616 0.04454836
0.00515899 -0.02330861 0.01570034
0.00504127 -0.07077422 0.04130280
0.00452709 -0.01523700 0.01794950
0.00472920 -0.01340477 0.01930062
0.00453844 -0.07265256 0.03051130
0.00509327 -0.03900199 0.01966092
0.00500431 -0.07052390 0.04238930
0.00623136 -0.07360654 0.03043508
0.00460058 -0.01019715 0.02444729
0.00466329 0.01079592 0.02267205
0.00504465 -0.07270544 0.02389604
0.00483433 -0.03269174 0.01606384
0.00490065 0.01443133 0.02098603
0.00483188 0.04771627 0.04177404
0.00493569 -0.00392158 0.02308919
0.00622078 -0.07194899 0.03890163
0.00482566 0.04292734 0.03555858
0.00548463 0.02783972 0.02423395
0.00508313 0.04557775 0.04114674
0.00583534 -0.07438061 0.03577279
0.00539456 0.00267254 0.06400954
0.00549202 0.01130554 0.06354866
0.00480894 0.00699474 0.06418750
0.00512793 0.02279514 0.01943657
0.00590310 0.03272458 0.02614821
0.00532628 -0.00093289 0.06373150
0.00490995 0.02681738 0.02063023
0.00376530 -0.07530934 0.03281177
0.00486549 -0.02449173 0.00319772
0.00500438 0.04476371 0.04315614
0.00543031 -0.00440130 0.06303167
0.00557482 0.01561641 0.06285109
0.00551870 -0.00798487 0.06218342
0.00545727 -0.04148740 0.02119882
0.00535830 -0.01102144 0.02193374
0.00491086 -0.01183800 0.06137770
0.00508411 -0.00693642 0.02088269
0.00543054 -0.00889910 0.02409513
0.00560341 -0.07028226 0.02449509
0.00515566 0.04416484 0.03877546
0.00500222 -0.02176174 0.00316383
0.00509770 -0.02408933 0.00151734
0.00494168 -0.07259249 0.03060400
0.00620515 -0.07459144 0.03387857
0.00554820 -0.01465481 0.06004418
0.00521158 0.03014986 0.01770476
0.00515176 -0.01615407 0.01768258
0.00504148 -0.03504123 0.01727416
0.00569535 0.01979966 0.06184470
0.00524587 0.02909127 0.01764926
0.00573419 -0.03161751 0.05022439
0.00497825 -0.02262723 0.00489402
0.00537655 0.02756670 0.02266469
0.00601101 -0.05222731 0.04197033
0.00547492 0.00572801 0.02656865
0.00627148 -0.05074977 0.04178460
0.00495086 0.00373989 0.02636310
0.00532826 -0.02251580 0.00102806
0.00561170 -0.05345588 0.02370547
0.00534183 -0.02956084 0.01553772
0.00689309 -0.06148696 0.04474084
0.00579972 -0.07241874 0.03343053
0.00559836 0.04170115 0.03340592
0.00561067 -0.00745463 0.02739446
0.00528336 -0.02462412 0.00449032
0.00568699 -0.03346763 0.04931411
0.00548187 0.00598833 0.02576607
0.00590984 0.02323291 0.06060471
0.00570439 0.00221336 0.02668130
0.00525994 -0.02552440 0.00256639
0.00591568 0.04060400 0.04822660
0.00542065 0.04420111 0.04058580
0.00559658 0.01206128 0.02097106
0.00578617 -0.03818777 0.04740737
0.00549347 -0.02198760 0.00603410
0.00558985 0.03164669 0.01892050
0.00544072 0.04414988 0.04216829
0.00591286 -0.07349007 0.02834501
0.00539095 0.02787981 0.01781464
0.00569294 -0.00255461 0.02509253
0.00533073 -0.07247184 0.03077262
0.00528557 0.00885061 0.02352501
0.00568925 -0.02601670 0.01568531
0.00590347 -0.04703529 0.02348873
0.00601111 0.04037149 0.03133186
0.00605759 -0.01960655 0.05731689
0.00595540 -0.07401945 0.03296930
0.00570430 -0.02300275 0.00602570
0.00599466 -0.04952700 0.02387056
0.00545916 -0.00841699 0.02418204
0.00560700 0.02909519 0.02099518
0.00575598 0.04344509 0.04339335
0.00560755 -0.02476607 0.00111741
0.00609185 -0.06335661 0.04498819
0.00540718 0.03154901 0.01786501
0.00585143 0.01457857 0.01970292
0.00547932 -0.00558659 0.02517034
0.00588189 -0.02220901 0.05594046
0.00581435 -0.00698004 0.02646902
0.00605993 0.00163703 0.02621831
0.00597496 -0.01400970 0.01915405
0.00556232 -0.07029123 0.04210643
0.00663658 -0.05674005 0.02405206
0.00567177 -0.01912094 0.00560763
0.00590270 -0.00137507 0.02566162
0.00578249 -0.00561746 0.02318705
0.00698543 0.00402406 0.02807319
0.00560731 0.04293784 0.03649641
0.00613222 -0.04529935 0.02315134
0.00600617 -0.02599727 0.00245682
0.00594524 0.01716903 0.01905009
0.00583298 0.02946904 0.01569350
0.00555582 0.03444491 0.05435682
0.00595584 -0.04527761 0.04353887
0.00567239 -0.00954015 0.02210560
0.00637636 -0.07075985 0.02555423
0.00566600 -0.00739205 0.02809922
0.00675081 0.00098136 0.02626708
0.00604896 -0.01944814 0.00671890
0.00629967 -0.02689582 0.05311337
0.00571682 -0.07230396 0.03103983
0.00726401 -0.07354168 0.03278948
0.00569952 -0.01850352 0.00440298
0.00578664 0.02351053 0.01857050
0.00615084 0.02452004 0.01817625
0.00565303 -0.01726700 0.00429114
0.00584350 -0.02585652 0.00349034
0.00578651 0.00994470 0.02201225
0.00637626 -0.04759971 0.04227609
0.00618719 -0.01121507 0.02271485
0.00577929 -0.01076664 0.02130040
0.00643156 -0.07319934 0.03112444
0.00630154 -0.07226743 0.02639046
0.00705789 -0.04229406 0.04502861
0.00580236 -0.02432995 0.00524906
0.00623397 -0.00519175 0.02250407
0.00621280 -0.01655272 0.01798818
0.00612724 0.02853956 0.01595128
0.00618091 -0.01449715 0.00965282
0.00723927 -0.00320033 0.02556911
0.00621672 0.03400740 0.01845826
0.00585896 -0.03210820 0.01641800
0.00620705 -0.00679821 0.02548284
0.00612460 -0.01092451 0.01662036
0.00637710 -0.01930653 0.00142337
0.00597704 -0.01678071 0.00383457
0.00618741 -0.06816962 0.04492941
0.00606887 0.03366355 0.01732689
0.00656941 -0.02327878 0.00054117
0.00606209 0.03239978 0.01594933
0.00591870 0.00316320 0.02693809
0.00736048 0.03648354 0.02857391
0.00597798 -0.03467099 0.01745916
0.00666989 -0.06569228 0.04505353
0.00606009 0.02878681 0.02292489
0.00621805 -0.00986380 0.01766386
0.00599487 -0.01808260 0.00320598
0.00665793 -0.07057743 0.04398044
0.00635403 0.03044744 0.01356164
0.00644355 -0.01659291 0.00962469
0.00609595 -0.01204719 0.01568240
0.00651073 0.03052110 0.02190541
0.00616435 -0.06981345 0.04302602
0.00596257 -0.00901842 0.02383153
0.00683334 -0.02061359 0.01729560
0.00602506 0.02173046 0.00438858
0.00622871 -0.00831249 0.02155202
0.00611640 0.02224315 0.00673289
0.00615206 0.02827499 0.01329117
0.00618545 -0.00461108 0.02634941
0.00607632 -0.01160864 0.02183755
0.00680547 -0.07050107 0.04503945
0.00619736 0.02253147 0.00407947
0.00691672 -0.07332973 0.03254816
0.00713227 0.04071812 0.04641688
0.00620360 -0.01271849 0.01665239
0.00630938 0.02796490 0.01687749
0.00671237 0.02549448 0.01783118
0.00606160 0.01916532 0.00356929
0.00591851 0.00783388 0.02385285
0.00631150 0.01905631 0.00061618
0.00634864 0.01676982 0.00126887
0.00647236 -0.01300345 0.00962407
0.00563034 0.02868784 0.02473093
0.00678786 -0.01092071 0.06063422
0.00627367 -0.07211008 0.03299749
0.00633415 0.01794521 0.00445882
0.00639330 0.01668258 0.00310872
0.00634658 -0.00610031 0.02156866
0.00631824 0.02070999 0.00209730
0.00636130 -0.01936589 0.00720988
0.00683328 0.02887411 0.02419346
0.00630407 -0.07195329 0.03210875
0.00632951 0.02491162 0.00957822
0.00638173 -0.01507142 0.01112746
0.00694021 -0.00349237 0.02959930
0.00636316 -0.03974854 0.02084085
0.00636658 0.04316525 0.04015757
0.00644389 0.01992735 0.00610459
0.00641301 -0.02600417 0.00370375
0.00636040 -0.06966256 0.04182165
0.00652214 -0.01422300 0.00750387
0.00717859 -0.05860063 0.04397474
0.00627971 0.00613632 0.06357830
0.00632767 0.02774127 0.01490925
0.00692519 -0.01942807 0.00095911
0.00631706 -0.01279665 0.01107740
0.00659179 0.01769478 0.00023377
0.00635303 -0.02806380 0.01615170
0.00707616 -0.01661968 0.05809647
0.00645930 0.02573571 0.00858368
0.00659255 -0.06847293 0.04284179
0.00671490 0.03389268 0.01550302
0.00684413 -0.00889108 0.01706794
0.00661416 0.02809290 0.01051445
0.00680061 0.04234621 0.03697054
0.00665900 -0.01599973 0.00412785
0.00677730 0.02946036 0.02353411
0.00662074 0.02356757 0.00405660
0.00723360 -0.04046491 0.04591252
0.00697530 -0.06435499 0.02447682
0.00777549 -0.06756491 0.02591702
0.00688441 -0.02563260 0.00193314
0.00654096 -0.01233632 0.02235850
0.00655626 -0.01370878 0.01627913
0.00715460 0.03481506 0.02039497
0.00677330 -0.02375396 0.01667080
0.00679461 -0.01113454 0.01264204
0.00689841 -0.05399205 0.02462546
0.00667269 0.03798941 0.05049630
0.00691396 -0.00482880 0.02714663
0.00723225 0.02551764 0.05892580
0.00696805 0.02650290 0.00753992
0.00728588 0.00946197 0.02088037
0.00735572 -0.02143202 0.00070153
0.00699298 0.01702596 0.00497597
0.00743601 -0.01072130 0.02220706
0.00713766 -0.02554291 0.00605465
0.00740446 -0.04127578 0.02257585
0.00716717 -0.05258419 0.04120489
0.00677741 -0.00456234 0.02542017
0.00701345 -0.01693260 0.00311477
0.00683601 -0.02265187 0.00672296
0.00676812 0.02643688 0.01386559
0.00669986 0.01683640 0.01854398
0.00667977 -0.00454505 0.02859570
0.00697773 0.01188264 0.01964910
0.00665255 0.02367137 0.01001415
0.00715745 -0.06780429 0.04410193
0.00673797 0.02931701 0.05719868
0.00690963 0.01402322 0.01893296
0.00710079 -0.02719248 0.00321954
0.00688261 0.04123075 0.03377468
0.00909066 -0.07145245 0.04689251
0.00734825 -0.00439612 0.02440835
0.00710457 -0.00685880 0.02156897
0.00795945 0.00299742 0.02929264
0.00750749 -0.05529319 0.04187048
0.00703206 -0.02685360 0.00444728
0.00673582 -0.02991900 0.01665450
0.00673719 0.03396000 0.05401731
0.00718947 -0.00376371 0.02805321
0.00711522 0.03030540 0.01133488
0.00735757 -0.01037125 0.02339378
0.00704840 -0.00084846 0.06285259
0.00730470 0.00274443 0.02770799
0.00808708 -0.02139374 0.00770184
0.00693466 0.01643808 0.00402013
0.00736978 -0.02682597 0.00171214
0.00773329 -0.05860511 0.02498751
0.00706529 -0.00960367 0.02327401
0.00732049 -0.01371769 0.00685526
0.00738285 0.01541086 0.00120712
0.00720495 -0.06817149 0.04175792
0.00728269 -0.06654676 0.04177303
0.00722210 0.02038272 0.00774472
0.00768683 -0.02397316 0.00086917
0.00789882 0.03845347 0.03036760
0.00817681 -0.07235391 0.03000637
0.00813067 -0.06456023 0.02552885
0.00725064 0.01688182 0.00001121
0.00722409 -0.03719666 0.01974177
0.00767880 0.02699332 0.01681754
0.00697976 0.03546041 0.01726982
0.00758721 -0.04642555 0.04154656
0.00718630 -0.06694312 0.04248277
0.00747557 0.02755114 0.01638727
0.00691905 -0.03262066 0.01745850
0.00744835 0.02147458 0.00114475
0.00715431 0.00707884 0.02339956
0.00762248 -0.03086931 0.04939869
0.00732005 0.02739331 0.01530279
0.00739155 0.02903545 0.02510596
0.00752681 0.00531398 0.02566130
0.00724200 -0.01658928 0.01126085
0.00700918 -0.04829108 0.02467234
0.00857402 0.00234239 0.02834907
0.00693748 -0.07362775 0.03554628
0.00703509 -0.01536581 0.01307578
0.00728337 -0.00683677 0.06145607
0.00719797 0.02321257 0.01033878
0.00776021 0.00263048 0.06273170
0.00741600 -0.01521657 0.00465504
0.00756245 -0.02003451 0.00784995
0.00779437 -0.04736436 0.02537962
0.00713390 -0.01311746 0.02151710
0.00706654 -0.00342644 0.02864234
0.00757681 0.02237093 0.01778787
0.00709021 0.00428302 0.02707610
0.00735156 -0.02535046 0.01698215
0.00738915 0.01572844 0.00309216
0.00771377 0.03690841 0.01904844
0.00758175 -0.04489257 0.02446856
0.00761977 0.04207961 0.03977684
0.00728369 -0.01269721 0.02230337
0.00759160 -0.06762331 0.04578079
0.00756337 -0.00547664 0.02335305
0.00789808 -0.03281349 0.04825646
0.00723724 -0.06858924 0.04460122
0.00759991 0.01586909 0.01831428
0.00811010 -0.00150946 0.02719930
0.00696803 0.02187010 0.00179155
0.00749216 0.03998032 0.03174251
0.00731130 0.03115393 0.02266709
0.00781265 -0.01220388 0.02293874
0.00775671 -0.04454525 0.04247725
0.00777180 -0.05415144 0.02547911
0.00757288 0.02484378 0.00408764
0.00730499 -0.01190977 0.00961994
0.00784293 -0.02371644 0.00734880
0.00749292 0.03465375 0.01473866
0.00766560 0.01883894 -0.00009214
0.00770178 -0.01708595 0.00247650
0.00849956 0.00192426 0.02772775
0.00768184 0.04194775 0.03825786
0.00782652 0.02750824 0.00709597
0.00771786 -0.00442559 0.02483525
0.00801285 -0.01837282 0.01027304
0.00780328 0.03198306 0.01182967
0.00788662 -0.07095910 0.03847941
0.00802050 -0.00642830 0.01972537
0.00939883 -0.07043884 0.04761187
0.00826523 -0.07114321 0.02816490
0.00752710 -0.06470351 0.04118105
0.00796646 0.02398014 0.01148371
0.00838591 0.02551054 0.01719974
0.00795552 -0.02557763 0.00070654
0.00828848 -0.01189227 0.02137562
0.00810258 -0.01321668 0.05879809
0.00797721 -0.06319466 0.04481164
0.00816003 -0.00530078 0.02434658
0.00844908 0.02589963 0.01406784
0.00867885 -0.06006567 0.04386035
0.00823240 0.02888156 0.02508445
0.00793167 -0.02709877 0.01749021
0.00783580 -0.06441777 0.04007183
0.00784391 -0.00193028 0.02970728
0.00826387 -0.01712395 0.05679364
0.00812407 0.02360987 0.01739095
0.00782294 0.03626307 0.01677088
0.00821556 -0.02098760 0.05457520
0.00808255 -0.02567941 0.05228970
0.00760593 0.01073290 0.06252010
0.00837627 0.02361176 0.00251267
0.00761432 0.01499850 0.06191920
0.00790540 -0.01606651 0.01332877
0.00774656 0.03565564 0.05168926
0.00766850 0.01905150 0.06100790
0.00803866 -0.01708778 0.01172548
0.00810015 -0.02479189 0.00700632
0.00781195 0.01581300 0.00067866
0.00856589 -0.07106403 0.03706686
0.00920977 0.03116585 0.02650464
0.00771305 0.00655716 0.06277200
0.00803814 -0.01386457 0.02116776
0.00857451 -0.01513466 0.02000879
0.00801729 -0.04909724 0.02581958
0.00840063 0.02220766 0.05952721
0.00810182 -0.02731762 0.00229572
0.00921240 -0.05859232 0.04286337
0.00841723 -0.02727524 0.00475938
0.00846198 0.04103726 0.04223389
0.00796571 -0.02761384 0.00341330
0.00780062 -0.03025590 0.01773590
0.00781951 0.03136446 0.05505963
0.00856952 -0.02003779 0.01880651
0.00827809 0.01851986 0.01787529
0.00822872 0.03001700 0.02433101
0.00783546 0.02777100 0.05729630
0.00800192 0.04076082 0.03416994
0.00831830 -0.03547325 0.01994511
0.00840852 -0.02035700 0.00811145
0.00819349 0.03118826 0.02344302
0.00847745 -0.06966064 0.03940925
0.00890666 0.00275685 0.02899692
0.00882324 -0.06511471 0.04222410
0.00810271 -0.02615806 0.00606524
0.00814275 -0.04871481 0.04034175
0.00889341 0.01827767 0.00000473
0.00803387 -0.00291711 0.03110701
0.00834257 0.03733995 0.01974941
0.00832242 -0.06679188 0.04026182
0.00812175 0.03601110 0.02094311
0.00858293 -0.00130356 0.02803013
0.00843316 -0.00434379 0.02273452
0.00827139 0.01319978 0.01878145
0.00800276 -0.00409341 0.02732040
0.00824775 0.01740481 0.00570616
0.00818079 0.01526607 0.00208058
0.00922876 -0.06579906 0.04331173
0.00905160 0.02690318 0.01511490
0.00839259 -0.05296930 0.04015158
0.00846144 -0.00191531 0.02674884
0.00831567 0.01112491 0.01959705
0.00865972 -0.04183191 0.04395157
0.00761851 -0.03696484 0.04713910
0.00827752 -0.03299977 0.01891165
0.00835565 0.03518880 0.01449336
0.00819516 -0.06437020 0.03901473
0.00830509 0.00925336 0.02070776
0.00874524 -0.06527814 0.04547548
0.00850919 -0.01018471 0.02309710
0.00856244 -0.04029615 0.04506953
0.00872015 -0.02185481 0.00073593
0.00816866 0.00738725 0.02233225
0.00861178 -0.04210605 0.02441324
0.00770101 0.03428774 0.02733598
0.00825377 -0.01132649 0.00934379
0.00849226 0.01622029 0.00049056
0.00891566 0.00441956 0.02629162
0.00905346 0.02005477 0.00046013
0.00847371 -0.02057650 0.00064314
0.00838449 -0.03812941 0.02146591
0.00825330 -0.00194700 0.03064400
0.00885153 -0.00721300 0.06017879
0.00867563 -0.00289341 0.02707236
0.00866290 -0.06401973 0.04103384
0.00872138 -0.01150993 0.02326879
0.00845230 0.02832005 0.00732637
0.00923109 -0.02668122 0.00187914
0.00911943 -0.06286261 0.03852687
0.00833345 -0.07266808 0.03387546
0.00874832 -0.01725818 0.00189935
0.00881696 -0.05577419 0.04097121
0.00909612 -0.06201802 0.02664605
0.00877571 -0.02326721 0.01855015
0.00895679 0.01502169 0.00425595
0.00895035 -0.05406492 0.02700906
0.00878242 0.03117681 0.01009661
0.00831524 0.04040769 0.04466450
0.00865999 0.03969261 0.03236022
0.00774578 0.03876775 0.04838186
0.00899695 0.02136756 0.00080423
0.00960080 -0.01047528 0.02245571
0.00884141 0.02903426 0.02490271
0.00901184 0.02564363 0.00410578
0.00843838 0.03679117 0.01740670
0.00947054 -0.01290596 0.00616098
0.00888846 -0.04548743 0.04038795
0.00916365 -0.00064983 0.06137527
0.00893559 0.01911280 0.00745239
0.00904780 -0.01012636 0.05911591
0.00883308 -0.04421769 0.04135739
0.00865681 -0.04473539 0.02586736
0.00935598 -0.02455671 0.00089460
0.00955520 0.02034376 0.00802804
0.00876846 0.03664236 0.04928514
0.00952527 0.02185885 0.00928591
0.00864854 0.03500243 0.02195832
0.00903392 0.01441846 0.00124635
0.00855406 -0.02853010 0.01825410
0.00866872 -0.00254789 0.02483231
0.00897342 0.01436050 0.00252280
0.00908420 0.01521007 0.00005466
0.00889514 0.01539632 0.01822413
0.00892911 0.02747415 0.01633781
0.00866631 0.03293011 0.05291805
0.00883061 -0.06353091 0.03996310
0.00922300 -0.01944223 0.00109682
0.00940545 0.02357993 0.00236414
0.00925691 -0.02604463 0.00580817
0.00904821 -0.00301642 0.03188774
0.00923436 -0.02367808 0.00722167
0.00960873 0.00297430 0.03111546
0.00920811 -0.02983944 0.04839719
0.00846408 -0.00768884 0.01603676
0.00928613 -0.00043173 0.02891143
0.00886068 -0.00086793 0.03114413
0.00947669 -0.01681261 0.02029952
0.00914821 -0.02008188 0.00856328
0.00965033 -0.07054379 0.03058615
0.01071932 -0.07164025 0.04851743
0.00915909 -0.00451487 0.02794405
0.00925691 -0.04901060 0.03900025
0.00899703 -0.06900774 0.02786117
0.00908636 -0.06633408 0.03960024
0.00904283 -0.03043050 0.01905278
0.00906889 0.01606033 0.00551431
0.00884342 0.02832750 0.05604029
0.00948176 -0.07056268 0.03516742
0.00933219 -0.03543056 0.04636800
0.00995918 0.00315650 0.03000600
0.00976382 0.03584646 0.02935432
0.01001700 -0.06746967 0.04531041
0.00972283 0.02864728 0.02574031
0.00941544 -0.05397312 0.03923138
0.00909334 -0.04924867 0.02756551
0.00928196 -0.04672908 0.03919020
0.00906954 0.00703024 0.02268165
0.00889870 -0.01639403 0.01357883
0.00913276 0.03673917 0.01753700
0.00924438 -0.02709248 0.00456274
0.00930492 -0.02742339 0.00391869
0.00935325 0.02440569 0.05773530
0.00916772 0.04026413 0.03520279
0.00925591 0.02282547 0.01737463
0.00987190 -0.05761693 0.04154271
0.00980674 -0.06410491 0.03843179
0.00938808 -0.01824258 0.01117781
0.00894854 0.01841020 0.06029240
0.00913125 0.03733935 0.02046163
0.00895834 0.01444990 0.06111480
0.00983291 -0.06268850 0.04447078
0.00896785 0.01026340 0.06164630
0.00967261 -0.03183472 0.04700932
0.00959470 -0.04540479 0.02774512
0.00921956 0.03525492 0.01466806
0.00946310 0.03669011 0.02149178
0.00945765 0.01667052 -0.00065490
0.00949577 -0.00591344 0.02579248
0.00903222 0.00633113 0.06188000
0.00977864 -0.06543096 0.03911941
0.00970105 -0.05824141 0.02785911
0.00952945 -0.06512273 0.02747913
0.00934363 0.04055684 0.03922099
0.00980445 -0.00072869 0.02914949
0.00954072 -0.01449516 0.02065169
0.00920250 -0.00237355 0.02389084
0.00942947 -0.04250188 0.02591658
0.00959733 -0.00401775 0.02117949
0.00943980 -0.03807102 0.02281191
0.00945267 0.03414347 0.02267379
0.00959249 0.01815919 0.01794148
0.00938492 -0.06277389 0.03914706
0.01003565 0.02542583 0.00368782
0.00930177 -0.02691222 0.01903717
0.00935806 0.03135216 0.02373545
0.00960119 0.00332966 0.02843233
0.00920374 0.00267967 0.06169900
0.01000510 0.02350929 0.01088314
0.00977098 0.02957438 0.02498454
0.00978830 0.00452859 0.02606374
0.00991256 -0.05341103 0.03835589
0.00930195 -0.00090490 0.02660660
0.01035574 -0.06851070 0.02993492
0.01078538 -0.01097814 0.02197421
0.00988217 -0.00214263 0.02886922
0.01096078 -0.06869940 0.03245988
0.01002393 0.03761018 0.03118916
0.00947414 -0.00362887 0.03101430
0.00959557 0.03027177 0.00888981
0.01036319 -0.01087258 0.02335976
0.01000772 0.02559809 0.01735642
0.00969668 -0.01988887 0.05349495
0.00922449 -0.01397989 0.02074244
0.00989073 0.01595037 0.00580119
0.00993877 0.03814051 0.04502326
0.00986423 0.00229504 0.02948751
0.00985855 -0.04136047 0.04255132
0.01047173 0.01842676 -0.00004057
0.01006987 0.01305781 0.01897729
0.01018851 -0.06402373 0.04106677
0.00956633 -0.01436923 0.05681097
0.00970920 -0.01433266 0.00452448
0.00999661 -0.02618807 0.00601217
0.00992985 0.01905408 0.00751560
0.00996680 0.01507965 -0.00003910
0.00913828 -0.06830362 0.03939753
0.00981092 -0.06054973 0.02784253
0.00975633 -0.03159169 0.02022521
0.00985987 0.03331098 0.05066414
0.00956255 -0.03945234 0.04446122
0.01027504 0.01082123 0.01996666
0.00979447 0.03923585 0.03314562
0.00989131 -0.02743215 0.00259942
0.01003826 -0.00001224 0.02977621
0.01031800 -0.01715626 0.02109082
0.00992670 0.03925648 0.04272602
0.00989304 -0.01020136 0.00983587
0.01032056 0.03314704 0.02802553
0.00961071 -0.01648944 0.01347078
0.01021884 -0.02046996 0.00802355
0.00972321 -0.02242986 0.01979523
0.01036941 0.00884232 0.02123635
0.01029060 -0.01021101 0.02311661
0.00991871 0.03027734 0.05313428
0.01002841 -0.00057546 0.03242431
0.01042402 -0.02137225 0.00089439
0.01013105 -0.02412308 0.00714493
0.00994989 -0.04038726 0.02527951
0.01012813 -0.06847419 0.03763513
0.01045889 -0.03325365 0.02177470
0.01010414 0.02193265 0.00116846
0.00996711 0.01411835 0.00131698
0.00979598 0.02741932 0.05539945
0.01042088 0.01411859 0.00269527
0.01021337 -0.02720384 0.00484944
0.01046953 -0.04195773 0.04028285
0.00979745 -0.00182484 0.02394063
0.01005241 0.03225399 0.01163738
0.01029850 -0.00385585 0.02824746
0.00994728 -0.00655991 0.05934116
0.01054001 -0.00140431 0.03362858
0.01044381 -0.01929339 0.00135708
0.00996590 -0.05582567 0.03959587
0.00985282 -0.05037361 0.02914518
0.01004180 0.03019882 0.02433310
0.01036933 -0.02594107 0.00085236
0.01001462 0.01472620 0.00428292
0.01000191 0.03567616 0.01687687
0.01051539 -0.02987548 0.02088448
0.01001161 0.03634146 0.01906369
0.01052104 -0.06680963 0.03767460
0.01084350 0.02775330 0.01558025
0.01023747 0.02635735 0.01434512
0.01002130 0.02758958 0.01682401
0.01066354 0.02862694 0.02539175
0.01077537 0.02803002 0.02581775
0.01087811 -0.02125726 0.00753139
0.01069921 -0.06999979 0.04837191
0.01018897 0.03446016 0.01483016
0.01038946 0.03586031 0.02064816
0.01061157 -0.06077065 0.04327726
0.01048081 -0.01378944 0.02163455
0.00991486 -0.04561057 0.03832631
0.00997196 -0.00075010 0.02598730
0.00983280 -0.00718691 0.01498196
0.01039147 0.02100188 0.05813957
0.01009402 -0.04556469 0.02904342
0.01125638 -0.06842155 0.04787591
0.01019475 0.03965061 0.03669514
0.01014951 -0.04923191 0.03743350
0.01024178 -0.00316806 0.03389886
0.01075706 -0.01867560 0.01054508
0.01050732 -0.04368076 0.02931555
0.01013458 0.03516277 0.02228796
0.00969446 -0.02473895 0.05084743
0.01057148 -0.06427503 0.02893597
0.01084508 -0.01233465 0.02304930
0.01008050 0.01777570 0.05944840
0.01009310 -0.00018632 0.02773820
0.01187213 -0.06576334 0.04394993
0.01088712 -0.01178281 0.02165623
0.01021092 -0.01422442 0.02098588
0.01063729 -0.03919626 0.04292802
0.01016070 0.00976276 0.06062370
0.01016470 0.01390790 0.06013970
0.01058337 -0.02810008 0.04726675
0.01018520 0.00599736 0.06085020
0.01096061 -0.05760653 0.03084760
0.01105240 -0.07089984 0.04840320
0.01169804 0.02354719 0.00224297
0.01038478 -0.02754433 0.00329514
0.01056730 -0.04244738 0.03919281
0.01058321 0.03308476 0.02293632
0.01078332 -0.06375846 0.03958767
0.01068309 -0.06481050 0.03823299
0.01056494 -0.01394024 0.05567694
